# .PCD v0.7 - Point Cloud Data
VERSION 0.7
FIELDS x y z distance channel
SIZE 4 4 4 4 4
TYPE F F F F F
COUNT 1 1 1 1 1
WIDTH 602
HEIGHT 1
VIEWPOINT 0 0 0 1 0 0 0
POINTS 602
DATA ascii
14.076924 28.861971 -8.604354 33.244671 0.000000
35.989723 74.315872 -22.125057 85.484657 0.000000
10.309631 30.563847 -8.642919 33.393673 0.000000
6.275689 30.145149 -8.250548 31.877670 0.000000
-29.297152 72.513000 -20.955713 80.966660 0.000000
-32.681740 71.251648 -21.004370 81.154655 0.000000
-32.870052 71.137306 -20.997639 81.128647 0.000000
13.386416 29.292482 -8.343395 33.269474 1.000000
12.899763 29.866783 -8.428162 33.607479 1.000000
-32.913616 71.231590 -20.328030 81.058464 1.000000
-32.595482 67.788956 -19.486153 77.701462 1.000000
-18.941868 24.384539 -7.999073 31.896479 1.000000
-19.087929 24.291307 -8.003336 31.913477 1.000000
-8.629074 0.761017 -2.244133 8.948531 1.000000
-7.432371 -0.394717 -1.928151 7.688543 1.000000
-19.381927 20.296207 -7.021952 28.929276 2.000000
32.275158 1.714064 -7.802127 33.249016 3.000000
-4.393392 -0.536327 -1.068428 4.553139 3.000000
6.151950 31.531498 -7.473146 32.983780 4.000000
5.575074 31.617815 -7.468388 32.962776 4.000000
-26.953421 73.099731 -18.123533 79.990753 4.000000
-19.781670 22.469503 -6.963815 30.735773 4.000000
32.043446 1.298201 -7.179629 32.863579 5.000000
32.372013 1.492652 -7.255002 33.208588 5.000000
46.484882 59.669476 -16.933769 77.511566 5.000000
17.862829 29.218124 -7.666812 35.093582 5.000000
-16.026356 2.024600 -3.616426 16.553598 5.000000
-9.570762 1.032957 -2.155103 9.864631 5.000000
-9.581800 0.993563 -2.156632 9.871632 5.000000
-1.090885 -0.024375 -0.244283 1.118168 5.000000
-6.419981 -0.611389 -1.443780 6.608665 5.000000
33.012981 2.772177 -7.128202 33.887360 6.000000
32.749329 3.534584 -7.087396 33.693367 6.000000
32.831390 3.682631 -7.108431 33.793369 6.000000
-20.284536 17.166052 -5.717597 27.181368 6.000000
-15.686170 2.115278 -3.405647 16.190392 6.000000
-4.673077 -0.918515 -1.024716 4.871484 6.000000
-8.916563 46.043331 -9.683814 47.888096 7.000000
32.846596 3.777245 -6.540953 33.703865 8.000000
-7.569814 -0.497479 -1.435376 7.720743 9.000000
-23.658667 60.743984 -11.774047 66.243439 10.000000
-28.751202 63.617638 -12.609241 70.942429 10.000000
-3.060858 -0.681940 -0.566391 3.186643 10.000000
20.861076 11.773808 -4.121221 24.306202 11.000000
33.844551 61.972321 -12.148427 71.649193 11.000000
33.511543 61.978298 -12.121976 71.493187 11.000000
10.006824 65.242569 -10.791921 66.881943 12.000000
9.824888 65.272209 -10.792244 66.883949 12.000000
9.642431 65.298416 -10.792083 66.882950 12.000000
8.995553 65.329903 -10.782239 66.821945 12.000000
8.815190 65.370407 -10.784820 66.837936 12.000000
33.051609 0.323052 -5.122530 33.447773 13.000000
88.386116 20.470547 -14.060519 91.808754 13.000000
79.500053 28.810007 -13.104863 85.568756 13.000000
21.453508 10.168527 -3.679397 24.024778 13.000000
10.012408 65.278976 -10.235138 66.830765 13.000000
9.459801 65.323395 -10.229317 66.792755 13.000000
9.186504 65.365379 -10.229776 66.795753 13.000000
-23.390499 57.202480 -9.577663 62.537758 13.000000
-65.887436 26.941839 -11.031824 72.032761 13.000000
-9.444348 -0.263805 -1.464241 9.560822 13.000000
-17.933025 34.302711 -5.669811 39.120533 14.000000
-20.656713 17.481010 -3.963820 27.349541 14.000000
-52.728199 41.672115 -9.844427 67.924522 14.000000
-57.867947 42.913879 -10.552854 72.812523 14.000000
53.412663 42.092033 -9.384603 68.649269 15.000000
7.159695 46.679836 -6.517109 47.673275 15.000000
7.032705 46.722183 -6.520253 47.696278 15.000000
6.769662 46.747002 -6.518339 47.682274 15.000000
-8.257480 60.595661 -8.439435 61.735275 15.000000
-61.302025 36.196175 -9.824243 71.865273 15.000000
-2.744601 -0.708780 -0.391178 2.861507 15.000000
7.151687 46.627625 -6.110743 47.567036 16.000000
7.021894 46.650356 -6.111129 47.570038 16.000000
6.890435 46.661934 -6.110101 47.562035 16.000000
6.626652 46.678082 -6.107274 47.540031 16.000000
-38.708523 43.232346 -7.517059 58.514030 16.000000
-40.409981 41.150219 -7.471068 58.156029 16.000000
-2.783947 -0.714796 -0.372328 2.898262 16.000000
7.014257 46.599625 -5.706673 47.468842 17.000000
-19.998583 53.092793 -6.870396 57.148842 17.000000
-31.380072 46.243786 -6.767609 56.293846 17.000000
-20.214911 18.048838 -3.281730 27.297855 17.000000
-44.526264 35.800034 -6.918725 57.550842 17.000000
-47.926575 35.437916 -7.218071 60.040844 17.000000
-3.943860 -1.018483 -0.493260 4.103004 17.000000
21.602985 -19.451414 -3.275367 29.253624 18.000000
5.148157 28.727308 -3.288355 29.369629 18.000000
-9.631238 55.070999 -6.299189 56.260605 18.000000
-9.873258 47.096340 -5.421836 48.424610 18.000000
-3.787261 53.094887 -5.549952 53.518337 19.000000
-7.187359 51.664032 -5.438576 52.444340 19.000000
-7.689764 51.576565 -5.437020 52.429340 19.000000
-18.563084 49.914627 -5.552544 53.543339 19.000000
-19.124779 50.346333 -5.615283 54.148335 19.000000
-4.006931 -0.775966 -0.425541 4.103499 19.000000
28.427067 45.492817 -5.142846 53.890102 20.000000
4.270742 26.137075 -2.538983 26.605120 20.000000
-8.160168 49.506042 -4.810170 50.404110 20.000000
-47.278210 21.446346 -4.977080 52.153103 20.000000
-36.464436 -35.808491 -4.899590 51.341103 20.000000
4.521780 25.232052 -2.242686 25.731937 21.000000
3.554506 24.545170 -2.169824 24.895943 21.000000
3.487629 24.566830 -2.170870 24.907938 21.000000
-8.610007 47.661469 -4.237331 48.617928 21.000000
-9.217524 47.597431 -4.241601 48.666924 21.000000
-35.909916 -30.648293 -4.130391 47.390926 21.000000
-35.647724 -31.031815 -4.134923 47.442928 21.000000
5.874184 24.133478 -1.965186 24.915712 22.000000
5.696627 24.136055 -1.962109 24.876707 22.000000
5.634182 24.173229 -1.963845 24.898708 22.000000
5.561738 24.167498 -1.962110 24.876711 22.000000
5.489368 24.161545 -1.960374 24.854708 22.000000
5.416422 24.152464 -1.958403 24.829708 22.000000
5.313065 24.165205 -1.957614 24.819710 22.000000
5.241123 24.159487 -1.955957 24.798708 22.000000
5.168213 24.148685 -1.953907 24.772711 22.000000
5.103022 24.173752 -1.954774 24.783709 22.000000
5.030620 24.164484 -1.952881 24.759708 22.000000
4.929357 24.185347 -1.952881 24.759710 22.000000
4.862977 24.204880 -1.953355 24.765709 22.000000
4.795366 24.218367 -1.953355 24.765711 22.000000
4.729243 24.239485 -1.953985 24.773705 22.000000
4.662853 24.259457 -1.954538 24.780710 22.000000
4.560274 24.273870 -1.954143 24.775705 22.000000
4.490658 24.276712 -1.953355 24.765709 22.000000
4.422847 24.289160 -1.953355 24.765711 22.000000
4.354474 24.298468 -1.953118 24.762707 22.000000
4.286256 24.308569 -1.952960 24.760706 22.000000
4.184397 24.326317 -1.952961 24.760714 22.000000
4.116116 24.335939 -1.952803 24.758711 22.000000
4.047323 24.342415 -1.952408 24.753704 22.000000
3.979331 24.353626 -1.952408 24.753708 22.000000
3.911466 24.365635 -1.952487 24.754715 22.000000
3.808445 24.375889 -1.952014 24.748709 22.000000
3.740511 24.387413 -1.952093 24.749708 22.000000
3.673284 24.403675 -1.952566 24.755705 22.000000
3.605122 24.413839 -1.952566 24.755707 22.000000
-5.082908 47.095161 -3.747802 47.516697 22.000000
-9.111928 47.766399 -3.847419 48.779697 22.000000
-10.549520 45.549889 -3.699295 46.901699 22.000000
-13.117830 45.034492 -3.711204 47.052696 22.000000
-13.920923 44.749950 -3.707970 47.011692 22.000000
-18.287922 41.859398 -3.614190 45.822697 22.000000
-43.892437 23.970699 -3.956895 50.167694 22.000000
-44.186600 23.257542 -3.950742 50.089691 22.000000
-1.063807 0.509691 -0.093330 1.183292 22.000000
-35.920208 -30.311968 -3.718697 47.147697 22.000000
-35.268764 -33.212364 -3.832984 48.596695 22.000000
31.443150 -23.591026 -2.781594 39.407429 23.000000
5.944476 24.128839 -1.758458 24.912443 23.000000
5.867399 24.105602 -1.755564 24.871439 23.000000
5.775342 24.019093 -1.748082 24.765442 23.000000
5.675368 24.045984 -1.748294 24.768442 23.000000
5.608197 24.061741 -1.748294 24.768442 23.000000
5.540758 24.076334 -1.748223 24.767441 23.000000
5.471734 24.083927 -1.747658 24.759436 23.000000
5.404676 24.100090 -1.747729 24.760441 23.000000
5.302822 24.118618 -1.747446 24.756437 23.000000
5.234180 24.127480 -1.747023 24.750435 23.000000
5.166157 24.139080 -1.746811 24.747438 23.000000
5.097904 24.149506 -1.746528 24.743435 23.000000
5.030039 24.161694 -1.746387 24.741436 23.000000
4.928988 24.183535 -1.746458 24.742441 23.000000
4.862025 24.200140 -1.746670 24.745441 23.000000
4.794621 24.214602 -1.746741 24.746443 23.000000
4.727745 24.231806 -1.747023 24.750437 23.000000
4.661189 24.250797 -1.747446 24.756441 23.000000
4.558831 24.266190 -1.747164 24.752443 23.000000
4.491774 24.282743 -1.747446 24.756437 23.000000
4.424304 24.297155 -1.747587 24.758438 23.000000
4.356436 24.309420 -1.747588 24.758442 23.000000
4.288707 24.322466 -1.747658 24.759436 23.000000
4.186112 24.336288 -1.747376 24.755440 23.000000
4.118470 24.349855 -1.747517 24.757444 23.000000
4.049309 24.354361 -1.747022 24.750433 23.000000
3.979998 24.357710 -1.746458 24.742443 23.000000
3.913385 24.377586 -1.747093 24.751438 23.000000
3.818167 24.438114 -1.750270 24.796436 23.000000
-41.763626 23.802235 -3.401547 48.190430 23.000000
33.651371 -23.249216 -2.552834 40.981190 24.000000
24.250296 44.404400 -3.157822 50.693188 24.000000
5.932429 24.079943 -1.547865 24.848204 24.000000
5.864925 24.095440 -1.547802 24.847198 24.000000
5.785016 24.059324 -1.544439 24.793201 24.000000
5.715732 24.066648 -1.543878 24.784204 24.000000
5.648732 24.083490 -1.543941 24.785206 24.000000
5.547577 24.105963 -1.543878 24.784203 24.000000
5.480018 24.120386 -1.543816 24.783201 24.000000
5.410674 24.126831 -1.543255 24.774202 24.000000
5.335514 24.106768 -1.541013 24.738203 24.000000
3.078589 40.009830 -2.504557 40.206181 24.000000
-6.264910 44.129974 -2.781947 44.659187 24.000000
-9.478759 43.400719 -2.772666 44.510193 24.000000
-9.704842 43.275032 -2.768056 44.436184 24.000000
-16.753487 39.392258 -2.671751 42.890182 24.000000
-35.539284 7.502260 -2.267035 36.393188 24.000000
-16.267536 2.355782 -1.025914 16.469212 24.000000
-32.997856 -32.404270 -2.886537 46.338184 24.000000
18.068922 40.890388 -2.417393 44.770008 25.000000
5.948874 24.146694 -1.344767 24.905025 25.000000
5.875280 24.137981 -1.343363 24.879021 25.000000
5.798047 24.113518 -1.341095 24.837021 25.000000
5.694008 24.124962 -1.340394 24.824022 25.000000
5.626163 24.138824 -1.340286 24.822025 25.000000
5.559180 24.156385 -1.340393 24.824020 25.000000
5.489267 24.161100 -1.339799 24.813019 25.000000
-6.371166 43.566284 -2.380893 44.094009 25.000000
-36.108448 26.699347 -2.428355 44.973015 25.000000
-36.160339 26.581848 -2.426843 44.945015 25.000000
-38.005413 19.801229 -2.317339 42.917011 25.000000
-5.430573 -0.639868 -0.295688 5.476129 25.000000
-32.760845 -26.265167 -2.270579 42.051010 25.000000
41.857986 23.624279 -2.198609 48.114773 26.000000
5.952719 24.162296 -1.138300 24.910786 26.000000
5.884987 24.177864 -1.138255 24.909794 26.000000
5.813475 24.177685 -1.137478 24.892786 26.000000
5.703888 24.166824 -1.135833 24.856787 26.000000
5.635020 24.176823 -1.135559 24.850790 26.000000
5.567036 24.190521 -1.135468 24.848793 26.000000
5.499682 24.206942 -1.135513 24.849787 26.000000
5.431188 24.218306 -1.135330 24.845787 26.000000
2.382869 41.579002 -1.905064 41.690777 26.000000
-5.373548 42.063599 -1.939746 42.449783 26.000000
-18.210415 35.071503 -1.807642 39.558781 26.000000
-3.784606 -0.732911 -0.176335 3.858951 26.000000
-31.117460 -30.987389 -2.008791 43.960777 26.000000
5.962359 24.201429 -0.932630 24.942509 27.000000
5.892391 24.208281 -0.932256 24.932514 27.000000
5.823132 24.217844 -0.931995 24.925516 27.000000
5.745318 24.191225 -0.930349 24.881510 27.000000
5.643256 24.212158 -0.930237 24.878510 27.000000
5.575397 24.226851 -0.930200 24.877512 27.000000
5.507501 24.241354 -0.930163 24.876514 27.000000
5.449187 24.298565 -0.931770 24.919512 27.000000
3.045335 31.058727 -1.167709 31.229507 27.000000
-4.800264 40.739967 -1.534927 41.050499 27.000000
-5.451035 40.853603 -1.542181 41.244503 27.000000
-6.416793 40.697906 -1.541620 41.229496 27.000000
-17.773636 35.804756 -1.495704 40.001499 27.000000
-1.084779 0.536602 -0.045284 1.211090 27.000000
-1.180592 0.125752 -0.044425 1.188102 27.000000
-31.700544 -25.560850 -1.523710 40.750500 27.000000
47.770054 11.063720 -1.426759 49.055275 28.000000
5.966347 24.217615 -0.725730 24.952293 28.000000
5.829129 24.242786 -0.725498 24.944294 28.000000
5.753092 24.223955 -0.724451 24.908291 28.000000
5.651118 24.245892 -0.724392 24.906288 28.000000
5.583388 24.261576 -0.724392 24.906286 28.000000
5.515395 24.276100 -0.724363 24.905287 28.000000
5.438177 24.249470 -0.723113 24.862291 28.000000
3.231347 21.882641 -0.643624 22.129299 28.000000
3.031363 22.015173 -0.646620 22.232298 28.000000
2.809321 22.238062 -0.652204 22.424297 28.000000
-7.227325 39.378597 -1.164938 40.053280 28.000000
-7.495131 39.290852 -1.163862 40.016281 28.000000
-7.602161 39.256027 -1.163455 40.002281 28.000000
-7.699996 39.174816 -1.161681 39.941280 28.000000
-7.935916 39.216438 -1.164211 40.028278 28.000000
-30.580448 26.998259 -1.186955 40.810276 28.000000
-1.221189 0.100829 -0.035654 1.225863 28.000000
-1.144326 -0.871112 -0.041846 1.438774 28.000000
5.906257 24.265247 -0.518972 24.979099 29.000000
5.828890 24.241795 -0.518120 24.938103 29.000000
5.759785 24.252136 -0.517995 24.932098 29.000000
5.659283 24.280920 -0.518099 24.937101 29.000000
5.595043 24.312220 -0.518431 24.953102 29.000000
5.524028 24.314100 -0.518141 24.939102 29.000000
5.454577 24.322603 -0.517995 24.932102 29.000000
3.577266 21.892977 -0.460985 22.188099 29.000000
3.511836 21.876226 -0.460424 22.161098 29.000000
3.452757 21.898788 -0.460694 22.174099 29.000000
3.360544 21.910099 -0.460632 22.171104 29.000000
3.303959 21.950043 -0.461276 22.202101 29.000000
3.241336 21.950287 -0.461089 22.193106 29.000000
3.182606 21.977064 -0.461463 22.211105 29.000000
3.125157 22.013580 -0.462045 22.239103 29.000000
3.037284 22.058172 -0.462710 22.271105 29.000000
2.980751 22.104216 -0.463499 22.309101 29.000000
2.924247 22.152102 -0.464330 22.349104 29.000000
2.865320 22.182981 -0.464808 22.372099 29.000000
2.804615 22.200817 -0.465016 22.382099 29.000000
2.713414 22.227259 -0.465327 22.397100 29.000000
2.659265 22.301264 -0.466719 22.464102 29.000000
2.600561 22.339390 -0.467363 22.495102 29.000000
2.537716 22.342588 -0.467280 22.491100 29.000000
2.475205 22.348600 -0.467260 22.490107 29.000000
1.980337 38.298649 -0.796937 38.358093 29.000000
-6.535085 38.312340 -0.807657 38.874088 29.000000
-9.814369 36.730274 -0.790060 38.027084 29.000000
-11.367729 36.542500 -0.795274 38.278088 29.000000
-32.061775 23.294245 -0.823551 39.639091 29.000000
-31.200354 22.074736 -0.794236 38.228088 29.000000
-16.349375 2.460937 -0.343579 16.537119 29.000000
-16.286669 2.358552 -0.341979 16.460114 29.000000
-2.694182 0.188396 -0.056124 2.701344 29.000000
8.203317 -48.092457 -0.608242 48.790867 30.000000
5.922391 24.331535 -0.312205 25.043879 30.000000
5.844604 24.307146 -0.311681 25.001879 30.000000
5.743195 24.333361 -0.311706 25.003878 30.000000
5.667050 24.314245 -0.311257 24.967876 30.000000
5.596662 24.319254 -0.311120 24.956873 30.000000
5.528507 24.333815 -0.311108 24.955875 30.000000
5.460533 24.349159 -0.311108 24.955877 30.000000
3.969000 21.796743 -0.276215 22.156879 30.000000
3.906176 21.796915 -0.276077 22.145878 30.000000
3.847203 21.818573 -0.276215 22.156881 30.000000
3.697289 21.859686 -0.276402 22.171881 30.000000
3.635740 21.866972 -0.276364 22.168884 30.000000
3.516408 21.904707 -0.276589 22.186884 30.000000
3.421690 21.900469 -0.276352 22.167879 30.000000
3.362946 21.925758 -0.276551 22.183886 30.000000
3.301555 21.934072 -0.276539 22.182882 30.000000
3.244819 21.973871 -0.276925 22.213882 30.000000
2.926715 22.170803 -0.278808 22.364882 30.000000
-1.772068 37.299892 -0.465553 37.344868 30.000000
-7.077191 37.099937 -0.470876 37.771866 30.000000
-7.167839 37.013275 -0.470028 37.703865 30.000000
-12.151624 34.894711 -0.460666 36.952877 30.000000
-28.957298 4.524237 -0.365399 29.310875 30.000000
6.023196 24.448368 -0.104635 25.179605 31.000000
5.932906 24.374731 -0.104248 25.086605 31.000000
5.857334 24.360090 -0.104115 25.054605 31.000000
5.740774 24.323103 -0.103853 24.991610 31.000000
5.672146 24.336109 -0.103841 24.988602 31.000000
5.602147 24.343088 -0.103804 24.979607 31.000000
5.535253 24.363508 -0.103824 24.984602 31.000000
5.465885 24.373022 -0.103799 24.978609 31.000000
4.027718 21.774036 -0.092019 22.143614 31.000000
3.969047 21.797005 -0.092068 22.155613 31.000000
3.907458 21.804066 -0.092052 22.151613 31.000000
-3.855143 36.679234 -0.153263 36.881592 31.000000
-4.961491 36.408783 -0.152698 36.745602 31.000000
-5.222362 36.420773 -0.152897 36.793602 31.000000
-5.305235 36.277412 -0.152357 36.663597 31.000000
-12.926529 33.745155 -0.150167 36.136593 31.000000
-2.915512 -0.831606 -0.012599 3.031821 31.000000
-27.876297 -29.685242 -0.169224 40.722599 31.000000
6.028642 24.470472 0.104729 25.202372 32.000000
5.947277 24.433775 0.104501 25.147373 32.000000
5.868502 24.406536 0.104314 25.102375 32.000000
5.800323 24.422827 0.104314 25.102373 32.000000
5.678449 24.363152 0.103956 25.016369 32.000000
5.609718 24.375988 0.103944 25.013367 32.000000
5.540518 24.386681 0.103923 25.008366 32.000000
5.471303 24.397182 0.103902 25.003368 32.000000
4.027129 21.770851 0.092005 22.140375 32.000000
3.971333 21.809559 0.092121 22.168373 32.000000
3.909179 21.813671 0.092092 22.161371 32.000000
3.419566 22.089056 0.092886 22.352369 32.000000
3.269803 22.143059 0.093015 22.383371 32.000000
3.149034 22.181767 0.093102 22.404373 32.000000
2.860313 22.144217 0.092786 22.328375 32.000000
2.573597 31.170023 0.129970 31.276360 32.000000
-5.944358 35.446068 0.149356 35.941360 32.000000
-6.523697 34.994164 0.147926 35.597363 32.000000
-6.822217 35.228554 0.149115 35.883366 32.000000
-7.191763 35.035538 0.148628 35.766361 32.000000
-4.884048 -0.938751 0.020668 4.973490 32.000000
-29.256754 -21.444088 0.150739 36.274361 32.000000
-1.409415 -42.043381 0.174812 42.067360 32.000000
16.385443 34.445576 0.475555 38.147171 33.000000
5.945403 24.426077 0.313418 25.141188 33.000000
5.874364 24.430916 0.313268 25.129185 33.000000
5.807504 24.453064 0.313343 25.135187 33.000000
5.690497 24.414848 0.312545 25.071184 33.000000
5.623194 24.434546 0.312595 25.075188 33.000000
5.552058 24.437475 0.312433 25.062185 33.000000
5.483357 24.450933 0.312408 25.060186 33.000000
5.405979 24.425140 0.311884 25.018181 33.000000
3.654322 21.978733 0.277777 22.282188 33.000000
3.599220 22.027336 0.278263 22.321188 33.000000
3.539914 22.051128 0.278438 22.335192 33.000000
3.478010 22.058952 0.278413 22.333191 33.000000
3.328390 22.112354 0.278787 22.363186 33.000000
-3.072110 34.287140 0.429180 34.427170 33.000000
-4.748322 34.131794 0.429629 34.463177 33.000000
-28.815645 4.873801 0.364355 29.227180 33.000000
-4.466067 0.312298 0.055816 4.477321 33.000000
34.423740 -25.157482 0.886022 42.645958 34.000000
5.954225 24.462320 0.523186 25.181969 34.000000
5.875139 24.434137 0.522231 25.135969 34.000000
5.775033 24.468258 0.522438 25.145964 34.000000
5.696926 24.442427 0.521545 25.102972 34.000000
5.627302 24.452393 0.521420 25.096970 34.000000
5.559440 24.469969 0.521462 25.098976 34.000000
5.491303 24.486366 0.521483 25.099968 34.000000
5.388902 24.510132 0.521504 25.100971 34.000000
3.440215 22.019037 0.463122 22.290974 34.000000
2.676888 22.449059 0.469812 22.612976 34.000000
3.153885 31.266512 0.653038 31.431961 34.000000
1.624293 33.211090 0.690975 33.257965 34.000000
-1.884850 33.713017 0.701675 33.772957 34.000000
-2.631773 33.589748 0.700158 33.699966 34.000000
-4.491509 33.662300 0.705726 33.967957 34.000000
-5.180812 33.466011 0.703732 33.871964 34.000000
-1.079406 0.513463 0.024839 1.195566 34.000000
-33.267799 7.558259 0.708947 34.122959 34.000000
-28.886805 4.637259 0.607974 29.262966 34.000000
34.158966 -24.817942 1.228558 42.240677 35.000000
14.853774 32.744965 1.046226 35.971680 35.000000
5.954579 24.463776 0.732606 25.188688 35.000000
5.882736 24.465731 0.732170 25.173691 35.000000
5.813467 24.478168 0.732053 25.169685 35.000000
5.703622 24.471159 0.731123 25.137691 35.000000
5.632573 24.475296 0.730773 25.125685 35.000000
5.564204 24.490934 0.730774 25.125689 35.000000
5.494258 24.499544 0.730570 25.118685 35.000000
5.428415 24.526510 0.730919 25.130692 35.000000
3.904442 21.787237 0.644043 22.143694 35.000000
3.860769 21.895508 0.646922 22.242693 35.000000
3.648716 21.945013 0.647300 22.255692 35.000000
3.588387 21.961039 0.647475 22.261694 35.000000
3.038052 23.520256 0.690055 23.725691 35.000000
2.967849 23.492945 0.689008 23.689690 35.000000
2.874746 23.548826 0.690288 23.733686 35.000000
2.805069 23.524012 0.689328 23.700691 35.000000
2.743874 23.570477 0.690462 23.739693 35.000000
3.053900 31.146076 0.910604 31.308683 35.000000
-1.151080 32.962624 0.959699 32.996677 35.000000
-1.426751 32.941841 0.959408 32.986679 35.000000
-1.514915 32.854855 0.956994 32.903683 35.000000
-2.029703 32.996326 0.961910 33.072685 35.000000
5.969185 24.523783 0.944406 25.257454 36.000000
5.886662 24.482061 0.942163 25.197456 36.000000
5.712428 24.508940 0.941640 25.183460 36.000000
5.638811 24.502403 0.940780 25.160463 36.000000
5.570584 24.519018 0.940817 25.161455 36.000000
5.502092 24.534477 0.940817 25.161453 36.000000
5.437878 24.569267 0.941565 25.181459 36.000000
3.039872 23.534344 0.887909 23.746464 36.000000
2.969129 23.503077 0.886413 23.706455 36.000000
-3.596085 32.059818 1.207117 32.283447 36.000000
-5.574203 31.873045 1.210706 32.379448 36.000000
-5.646572 31.763891 1.207154 32.284451 36.000000
-16.980186 27.343594 1.204350 32.209457 36.000000
-31.970840 6.237669 1.218820 32.596451 36.000000
26.510590 22.056452 1.577498 34.522266 37.000000
22.747620 24.359718 1.524583 33.364269 37.000000
5.993068 24.621902 1.159160 25.367275 37.000000
5.907940 24.570555 1.155961 25.297276 37.000000
5.808870 24.611618 1.156738 25.314281 37.000000
5.726058 24.567419 1.153905 25.252275 37.000000
5.647127 24.538538 1.151803 25.206280 37.000000
5.578580 24.554213 1.151803 25.206280 37.000000
5.509552 24.567741 1.151711 25.204275 37.000000
5.405308 24.584751 1.151437 25.198277 37.000000
4.550443 30.815536 1.424877 31.182272 37.000000
-1.182321 31.347183 1.434930 31.402275 37.000000
-2.696579 31.071867 1.426659 31.221273 37.000000
-4.455778 31.074612 1.435980 31.425268 37.000000
-7.873745 31.393070 1.480487 32.399269 37.000000
-1.031040 0.464233 0.051723 1.131915 37.000000
-28.885605 4.719846 1.338833 29.299276 37.000000
28.435272 -24.337561 2.023927 37.483032 38.000000
6.080492 24.680933 1.374520 25.456043 38.000000
6.006824 24.678415 1.373440 25.436047 38.000000
5.897032 24.525188 1.363991 25.261044 38.000000
5.793332 24.545786 1.363775 25.257042 38.000000
5.722273 24.551180 1.363181 25.246050 38.000000
5.654138 24.569004 1.363289 25.248045 38.000000
5.582851 24.573013 1.362641 25.236046 38.000000
5.513991 24.587536 1.362587 25.235048 38.000000
5.412023 24.615290 1.362857 25.240046 38.000000
-0.982211 30.574579 1.654164 30.635042 38.000000
-11.878994 29.166777 1.702977 31.539045 38.000000
-24.280708 21.557421 1.755784 32.517040 38.000000
-23.934866 20.255190 1.695525 31.401041 38.000000
-3.522718 -0.988865 0.197853 3.664225 38.000000
-25.158401 -24.025095 1.881109 34.838039 38.000000
28.727800 -24.449274 2.354469 37.796787 39.000000
5.907187 24.567423 1.577055 25.316797 39.000000
5.793221 24.545317 1.574064 25.268789 39.000000
5.725788 24.566261 1.574376 25.273790 39.000000
5.658731 24.588964 1.574812 25.280792 39.000000
5.593140 24.618296 1.575684 25.294792 39.000000
5.520221 24.615313 1.574500 25.275789 39.000000
5.414922 24.628479 1.573878 25.265797 39.000000
5.354801 24.683493 1.576432 25.306795 39.000000
2.580297 30.221815 1.893128 30.390787 39.000000
-20.778629 18.552151 1.738580 27.909790 39.000000
-28.738148 4.407821 1.814639 29.130791 39.000000
17.518745 -15.685587 1.663952 23.573563 40.000000
28.521433 16.044779 2.315667 32.806545 40.000000
26.294159 18.548489 2.276987 32.258549 40.000000
5.891270 24.501225 1.783171 25.262556 40.000000
5.853251 24.645683 1.792488 25.394552 40.000000
5.730945 24.588385 1.786559 25.310555 40.000000
5.655548 24.575132 1.784441 25.280558 40.000000
5.586457 24.588881 1.784300 25.278553 40.000000
5.521263 24.619961 1.785429 25.294556 40.000000
5.454861 24.645996 1.786206 25.305557 40.000000
5.388162 24.837275 1.798417 25.478556 40.000000
5.316277 24.840519 1.797570 25.466555 40.000000
4.610242 22.145205 1.600637 22.676563 40.000000
4.548181 22.157009 1.600566 22.675554 40.000000
-0.456376 29.711742 2.102711 29.789551 40.000000
-24.082344 -24.251060 2.418440 34.262547 40.000000
17.026922 -14.409253 1.764821 22.375372 41.000000
16.583118 -13.914889 1.712765 21.715376 41.000000
29.145283 -23.433409 2.958884 37.514359 41.000000
5.499679 24.523714 1.988505 25.211370 41.000000
4.079350 22.053160 1.774443 22.497368 41.000000
4.017036 22.060545 1.774128 22.493370 41.000000
2.828127 22.386927 1.785328 22.635374 41.000000
2.738919 22.436184 1.788325 22.673378 41.000000
1.042447 28.702679 2.272449 28.811361 41.000000
0.322721 28.890272 2.285936 28.982365 41.000000
-20.679384 21.715492 2.372540 30.080368 41.000000
16.924770 -14.241886 1.935219 22.204149 42.000000
30.254988 -21.279343 3.236104 37.130135 42.000000
1.298326 28.157553 2.466084 28.295141 42.000000
1.024145 28.198767 2.468699 28.325142 42.000000
0.944361 28.170647 2.465997 28.294140 42.000000
-3.457972 28.659012 2.525524 28.977142 42.000000
-29.581772 5.130930 2.626711 30.138136 42.000000
-25.004066 -20.685163 2.839111 32.575142 42.000000
6.574770 27.011765 2.665216 27.927877 43.000000
-16.410114 2.259578 1.588076 16.640900 43.000000
17.001663 -14.105031 2.303288 22.210665 44.000000
5.882320 24.464003 2.623414 25.297657 44.000000
17.604422 -13.131494 2.474580 22.101479 45.000000
-26.476847 7.114264 3.089039 27.589460 45.000000
-27.644361 4.437807 3.154651 28.175463 45.000000
16.752798 -14.017453 2.645215 22.003237 46.000000
16.590662 -13.531013 2.592559 21.565243 46.000000
16.686983 -13.532153 2.601696 21.641243 46.000000
17.493238 -13.048559 2.642810 21.983238 46.000000
16.929781 -12.300205 2.534132 21.079239 46.000000
3.033025 22.491859 2.748364 22.861244 46.000000
2.963707 22.451033 2.742353 22.811245 46.000000
1.129388 26.076105 3.160715 26.291233 46.000000
-26.163046 7.069130 3.281896 27.299236 46.000000
16.589020 -14.198433 2.828561 22.017988 47.000000
16.429363 -13.552957 2.758933 21.475994 47.000000
16.252649 -12.918681 2.689434 20.934996 47.000000
2.975256 22.538515 2.944952 22.923994 47.000000
16.436161 -13.558564 2.940328 21.508780 48.000000
16.544189 -13.225974 2.922966 21.381777 48.000000
21.356939 5.420004 3.040668 22.242775 48.000000
4.651511 23.152332 3.258847 23.838774 48.000000
4.591649 23.189524 3.262264 23.863771 48.000000
2.931121 22.692406 3.157548 23.097769 48.000000
2.806888 22.729076 3.160420 23.118776 48.000000
2.654327 22.801249 3.167802 23.172771 48.000000
2.586060 22.768211 3.162196 23.131767 48.000000
2.525522 22.802916 3.166024 23.159769 48.000000
2.256857 23.017208 3.191587 23.346767 48.000000
-26.336605 3.738875 3.670871 26.852770 48.000000
16.833231 -11.388387 2.976985 20.540581 49.000000
4.849047 23.292299 3.484969 24.045570 49.000000
4.591568 23.189116 3.462651 23.891579 49.000000
4.143594 22.400465 3.336849 23.023571 49.000000
3.641335 22.285078 3.307573 22.821571 49.000000
3.582540 22.316658 3.310762 22.843575 49.000000
3.524829 22.355894 3.315110 22.873575 49.000000
3.433404 22.385132 3.317283 22.888573 49.000000
2.775444 22.735380 3.354965 23.148573 49.000000
2.714638 22.765642 3.358299 23.171576 49.000000
2.434638 22.856989 3.366995 23.231575 49.000000
16.145285 -11.903331 3.108696 20.298363 50.000000
16.138449 -11.725269 3.091543 20.186359 50.000000
16.145493 -11.661640 3.086642 20.154358 50.000000
16.159702 -11.535116 3.076994 20.091360 50.000000
23.363291 0.717895 3.622514 23.653358 50.000000
4.796432 23.366394 3.696792 24.138359 50.000000
4.714894 23.299305 3.684081 24.055359 50.000000
4.590767 23.185070 3.662945 23.917353 50.000000
4.529032 23.213316 3.665395 23.933352 50.000000
4.007776 22.363853 3.521129 22.991358 50.000000
3.930723 22.292240 3.508111 22.906361 50.000000
3.703257 22.273046 3.499228 22.848356 50.000000
3.311373 22.424578 3.513011 22.938354 50.000000
3.186219 22.443703 3.513165 22.939356 50.000000
2.815393 22.797947 3.560029 23.245358 50.000000
2.597345 22.867573 3.566767 23.289352 50.000000
16.225466 -13.308789 3.431129 21.264107 51.000000
16.111237 -11.774379 3.262672 20.220114 51.000000
16.174963 -11.444037 3.239598 20.077110 51.000000
28.163673 0.865398 4.606942 28.551100 51.000000
23.085320 0.806157 3.776757 23.406107 51.000000
3.093037 22.463079 3.707373 22.976105 51.000000
3.039924 22.543028 3.719152 23.049107 51.000000
2.975927 22.543600 3.717861 23.041105 51.000000
2.914353 22.562588 3.719636 23.052103 51.000000
2.858880 22.630365 3.729479 23.113106 51.000000
2.763225 22.635290 3.728350 23.106110 51.000000
4.392087 22.850737 4.003324 23.610870 52.000000
16.272594 -10.648487 3.512426 19.761700 53.000000
23.489117 0.951633 4.448027 23.925491 54.000000
24.804314 0.866186 5.124801 25.343004 56.000000
-1.791886 0.050052 0.370139 1.830400 56.000000
16.655207 -12.423454 4.470743 21.253839 57.000000
-1.702106 0.229529 0.384509 1.760027 58.000000
-2.687888 0.071324 0.625476 2.760625 59.000000
13.575894 -10.009012 4.071579 17.351166 60.000000
22.048418 5.041662 5.459810 23.267157 60.000000
-1.819162 0.286825 0.444566 1.894534 60.000000
-2.799455 -1.108383 0.726822 3.097375 60.000000
2.108692 -0.103132 0.528248 2.176296 61.000000
15.385866 -12.620114 5.332069 20.601532 63.000000
-2.015503 -0.887262 0.590066 2.279839 63.000000
